ply
format ascii 1.0
element vertex 1484
property double x
property double y
property double z
property uchar red
property uchar green
property uchar blue
end_header
1.1958 1.5206 14.6170 102 102 102
1.3889 1.6028 15.4065 92 92 92
1.4388 1.6106 15.4820 108 108 108
1.4799 1.6084 15.4606 109 109 109
1.5133 1.5983 15.3631 106 106 106
1.5542 1.5964 15.3452 106 106 106
1.5864 1.5859 15.2442 107 107 107
1.6178 1.5752 15.1412 105 105 105
1.6474 1.5633 15.0267 116 116 116
1.6811 1.5558 14.9545 131 131 131
1.7145 1.5484 14.8834 132 132 132
1.7372 1.5319 14.7252 116 116 116
1.7560 1.5128 14.5419 67 67 67
1.7638 1.4853 14.2773 45 45 45
1.7782 1.4644 14.0765 86 86 86
1.7999 1.4503 13.9412 108 108 108
1.8186 1.4345 13.7890 93 93 93
1.8405 1.4218 13.6665 86 86 86
1.8657 1.4121 13.5736 73 73 73
1.8884 1.4009 13.4661 59 59 59
1.9105 1.3898 13.3589 48 48 48
1.9430 1.3864 13.3264 44 44 44
1.9718 1.3806 13.2709 25 25 25
1.9994 1.3742 13.2091 32 32 32
2.0296 1.3698 13.1672 44 44 44
2.0672 1.3705 13.1733 43 43 43
2.1056 1.3715 13.1838 52 52 52
2.1568 1.3809 13.2734 35 35 35
2.1951 1.3817 13.2818 33 33 33
2.2191 1.3737 13.2044 58 58 58
2.1798 1.3274 12.7596 74 74 74
2.1099 1.2643 12.1526 48 48 48
2.0110 1.1676 11.2233 48 48 48
2.0439 1.1685 11.2324 46 46 46
2.0714 1.1664 11.2121 46 46 46
2.1036 1.1670 11.2172 47 47 47
2.1317 1.1653 11.2010 42 42 42
2.1597 1.1636 11.1846 22 22 22
2.1871 1.1616 11.1658 13 13 13
2.2143 1.1596 11.1463 22 22 22
2.2439 1.1588 11.1393 15 15 15
2.2753 1.1590 11.1411 13 13 13
2.3031 1.1574 11.1256 17 17 17
2.3229 1.1519 11.0725 20 20 20
2.2976 1.1245 10.8087 24 24 24
2.2339 1.0791 10.3732 27 27 27
2.1701 1.0350 9.9484 28 28 28
2.2259 0.8545 8.2137 34 34 34
2.2242 0.8452 8.1240 45 45 45
2.2234 0.8364 8.0396 22 22 22
2.3268 0.7810 7.5072 30 30 30
2.3545 0.7832 7.5287 26 26 26
2.3651 0.7798 7.4961 16 16 16
2.3816 0.7784 7.4823 15 15 15
2.3995 0.7775 7.4732 17 17 17
2.4131 0.7752 7.4512 35 35 35
2.4296 0.7738 7.4383 50 50 50
2.4374 0.7697 7.3991 44 44 44
2.4590 0.7701 7.4021 42 42 42
2.4818 0.7707 7.4087 48 48 48
2.4940 0.7681 7.3837 47 47 47
2.5101 0.7668 7.3706 40 40 40
2.5245 0.7650 7.3531 42 42 42
2.5433 0.7644 7.3480 47 47 47
2.5640 0.7645 7.3487 51 51 51
2.5805 0.7634 7.3377 50 50 50
2.6001 0.7631 7.3353 53 53 53
2.6180 0.7624 7.3284 47 47 47
2.6372 0.7621 7.3251 24 24 24
2.6569 0.7618 7.3230 22 22 22
2.6752 0.7613 7.3174 24 24 24
2.6931 0.7606 7.3108 25 25 25
2.7099 0.7596 7.3014 26 26 26
2.7271 0.7587 7.2929 26 26 26
2.7793 0.7675 7.3777 25 25 25
2.8861 0.7912 7.6050 26 26 26
2.9242 0.7958 7.6492 26 26 26
2.9378 0.7937 7.6294 27 27 27
2.9437 0.7896 7.5899 29 29 29
2.9703 0.7910 7.6038 30 30 30
3.0029 0.7941 7.6329 30 30 30
3.0257 0.7945 7.6368 34 34 34
3.0392 0.7925 7.6175 35 35 35
2.9629 0.7620 7.3242 40 40 40
2.9438 0.7519 7.2273 43 43 43
2.8990 0.7354 7.0690 45 45 45
2.9669 0.7475 7.1857 44 44 44
2.9817 0.7462 7.1732 43 43 43
3.0120 0.7488 7.1980 43 43 43
3.0367 0.7500 7.2090 43 43 43
3.0568 0.7500 7.2092 41 41 41
3.0767 0.7500 7.2088 39 39 39
3.0968 0.7500 7.2089 43 43 43
3.1172 0.7500 7.2096 48 48 48
3.1375 0.7501 7.2101 48 48 48
3.1577 0.7501 7.2104 44 44 44
3.1907 0.7532 7.2399 38 38 38
3.2066 0.7522 7.2304 36 36 36
3.2524 0.7582 7.2878 32 32 32
3.6259 0.8297 7.9757 35 35 35
3.5729 0.8126 7.8112 35 35 35
3.5062 0.7926 7.6192 36 36 36
3.4294 0.7706 7.4074 35 35 35
3.3829 0.7556 7.2633 34 34 34
3.3890 0.7525 7.2332 32 32 32
3.4367 0.7586 7.2918 30 30 30
3.4404 0.7549 7.2568 29 29 29
3.3803 0.7374 7.0885 31 31 31
3.4610 0.7506 7.2155 33 33 33
3.4889 0.7523 7.2318 33 33 33
3.5258 0.7559 7.2662 29 29 29
3.5488 0.7565 7.2720 22 22 22
3.5751 0.7578 7.2845 36 36 36
3.6213 0.7633 7.3370 65 65 65
3.6576 0.7666 7.3689 58 58 58
3.6788 0.7668 7.3703 50 50 50
3.6994 0.7668 7.3705 42 42 42
3.7255 0.7679 7.3817 31 31 31
3.7606 0.7709 7.4103 22 22 22
3.7843 0.7715 7.4164 20 20 20
3.8074 0.7720 7.4211 18 18 18
3.8244 0.7713 7.4141 17 17 17
3.8699 0.7763 7.4621 16 16 16
3.9042 0.7790 7.4879 16 16 16
5.7940 1.1260 10.8237 13 13 13
5.7567 1.1130 10.6985 10 10 10
5.7835 1.1124 10.6930 10 10 10
5.7952 1.1090 10.6597 11 11 11
5.8662 1.1168 10.7354 9 9 9
5.8900 1.1157 10.7244 9 9 9
5.9140 1.1146 10.7138 9 9 9
5.9397 1.1138 10.7064 9 9 9
5.9627 1.1125 10.6942 9 9 9
5.9680 1.1080 10.6507 9 9 9
5.9829 1.1053 10.6244 9 9 9
5.9952 1.1021 10.5939 9 9 9
6.0128 1.0999 10.5731 10 10 10
6.0213 1.0961 10.5364 10 10 10
5.9744 1.0771 10.3535 10 10 10
3.3341 0.4308 4.1409 10 10 10
3.3587 0.4325 4.1570 10 10 10
3.3659 0.4319 4.1516 10 10 10
3.3491 0.4283 4.1167 9 9 9
3.3483 0.4267 4.1018 10 10 10
3.3565 0.4263 4.0979 19 19 19
3.3642 0.4258 4.0933 27 27 27
3.3712 0.4253 4.0880 31 31 31
3.3842 0.4255 4.0899 35 35 35
3.4266 0.4294 4.1274 52 52 52
3.4405 0.4297 4.1302 78 78 78
3.4519 0.4297 4.1301 103 103 103
3.4630 0.4296 4.1296 118 118 118
3.4745 0.4296 4.1297 110 110 110
3.4870 0.4297 4.1308 54 54 54
3.5016 0.4301 4.1346 26 26 26
3.5193 0.4309 4.1419 18 18 18
3.5376 0.4317 4.1498 13 13 13
3.5493 0.4317 4.1500 11 11 11
3.5721 0.4331 4.1631 10 10 10
3.5834 0.4331 4.1627 10 10 10
3.5613 0.4290 4.1237 9 9 9
-10.2489 1.6701 15.6357 100 100 100
-10.1053 1.6537 15.4824 99 99 99
-10.0066 1.6446 15.3969 102 102 102
-9.9828 1.6478 15.4263 104 104 104
-9.9986 1.6575 15.5175 101 101 101
-9.9912 1.6634 15.5731 100 100 100
-9.9216 1.6591 15.5321 105 105 105
-9.8409 1.6528 15.4732 108 108 108
-9.6711 1.6314 15.2729 106 106 106
-6.5912 1.2249 11.4672 101 101 101
-6.5104 1.2157 11.3816 94 94 94
-6.4382 1.2081 11.3104 99 99 99
-6.3790 1.2029 11.2615 104 104 104
-6.3323 1.2000 11.2341 102 102 102
-6.2986 1.1995 11.2298 115 115 115
-6.2605 1.1982 11.2175 122 122 122
-6.2165 1.1957 11.1945 122 122 122
-6.1774 1.1942 11.1801 117 117 117
-6.1520 1.1953 11.1904 119 119 119
-6.1143 1.1940 11.1785 115 115 115
-6.0887 1.1951 11.1886 104 104 104
-6.0748 1.1985 11.2205 95 95 95
-6.0565 1.2011 11.2445 94 94 94
-5.9915 1.1944 11.1816 106 106 106
-5.9597 1.1942 11.1803 108 108 108
-5.9106 1.1906 11.1462 111 111 111
-5.9103 1.1968 11.2044 115 115 115
-5.8313 1.1871 11.1133 115 115 115
-5.6451 1.2135 11.3609 121 121 121
-5.6301 1.2171 11.3945 121 121 121
-5.6011 1.2177 11.4000 131 131 131
-5.5617 1.2160 11.3841 132 132 132
-5.5291 1.2158 11.3824 139 139 139
-5.5149 1.2197 11.4185 143 143 143
-5.4898 1.2211 11.4324 116 116 116
-5.4608 1.2218 11.4382 129 129 129
-5.4458 1.2256 11.4737 149 149 149
-5.4167 1.2262 11.4796 148 148 148
-5.3992 1.2295 11.5105 147 147 147
-5.4578 1.2502 11.7048 146 146 146
-5.4387 1.2533 11.7338 149 149 149
-5.5008 1.2753 11.9395 150 150 150
-5.5231 1.2883 12.0607 148 148 148
-5.4702 1.2837 12.0183 150 150 150
-7.1769 1.7709 16.5787 154 154 154
-7.0746 1.7569 16.4482 152 152 152
-7.0463 1.7613 16.4889 150 150 150
-7.0440 1.7722 16.5915 151 151 151
-6.4093 1.7136 16.0428 150 150 150
-6.2824 1.6914 15.8353 152 152 152
-5.2177 1.4994 14.0376 157 157 157
-5.1282 1.4848 13.9010 155 155 155
-5.0814 1.4824 13.8786 153 153 153
-5.0721 1.4911 13.9594 153 153 153
-5.0540 1.4972 14.0169 152 152 152
-5.0521 1.5083 14.1206 156 156 156
-5.0416 1.5170 14.2017 161 161 161
-5.0493 1.5313 14.3358 166 166 166
-5.0709 1.5501 14.5119 164 164 164
-5.1191 1.5774 14.7674 159 159 159
-5.1388 1.5962 14.9440 145 145 145
-5.1488 1.6124 15.0954 130 130 130
-5.1499 1.6260 15.2225 138 138 138
-5.1530 1.6405 15.3582 151 151 151
-5.1417 1.6506 15.4527 153 153 153
-5.1297 1.6606 15.5465 146 146 146
-5.1261 1.6735 15.6677 136 136 136
-5.1144 1.6840 15.7660 132 132 132
-5.1052 1.6956 15.8738 130 130 130
-5.0913 1.7057 15.9688 128 128 128
-5.0733 1.7146 16.0523 129 129 129
-5.0653 1.7271 16.1695 127 127 127
-5.0521 1.7380 16.2716 124 124 124
-5.0187 1.7422 16.3103 119 119 119
-5.0207 1.7588 16.4657 120 120 120
-4.9774 1.7597 16.4741 117 117 117
-4.8792 1.7410 16.2990 120 120 120
-3.6835 1.5109 14.1455 119 119 119
-3.6344 1.5069 14.1075 118 118 118
-3.5867 1.5033 14.0744 113 113 113
-3.5517 1.5051 14.0908 99 99 99
-3.5248 1.5104 14.1400 92 92 92
-3.5027 1.5178 14.2100 108 108 108
-3.4592 1.5161 14.1940 118 118 118
-3.4155 1.5143 14.1766 120 120 120
-3.3623 1.5081 14.1185 126 126 126
-3.3063 1.5005 14.0477 127 127 127
-2.2563 1.4535 13.6076 104 104 104
-2.2590 1.4801 13.8563 104 104 104
-2.2233 1.4820 13.8746 105 105 105
-2.1767 1.4766 13.8239 107 107 107
-2.1383 1.4766 13.8238 104 104 104
-2.0992 1.4761 13.8195 100 100 100
-2.0590 1.4749 13.8079 80 80 80
-2.0142 1.4703 13.7646 85 85 85
-1.9656 1.4625 13.6924 94 94 94
-1.9223 1.4586 13.6557 95 95 95
-1.8645 1.4433 13.5124 95 95 95
-1.8235 1.4406 13.4873 106 106 106
-1.7657 1.4243 13.3341 114 114 114
-1.7194 1.4166 13.2625 111 111 111
-1.6783 1.4131 13.2294 114 114 114
-1.6357 1.4081 13.1830 116 116 116
-1.5945 1.4042 13.1459 120 120 120
-1.5585 1.4046 13.1503 118 118 118
-1.5201 1.4030 13.1345 115 115 115
-1.4855 1.4049 13.1523 114 114 114
-1.4424 1.3986 13.0933 114 114 114
-1.3426 1.4480 13.5566 112 112 112
-1.3416 1.4888 13.9383 111 111 111
-1.3049 1.4912 13.9604 113 113 113
-1.2726 1.4989 14.0328 108 108 108
-1.1168 1.4993 14.0366 61 61 61
-1.0100 1.5148 14.1819 80 80 80
-0.8235 1.6133 15.1040 93 93 93
-0.4385 1.4517 13.5908 89 89 89
-0.3931 1.4241 13.3325 89 89 89
-0.3539 1.4158 13.2551 92 92 92
-0.3176 1.4183 13.2778 94 94 94
-0.2817 1.4236 13.3276 94 94 94
-0.1795 1.4992 14.0358 91 91 91
-0.1393 1.4875 13.9255 94 94 94
-0.1011 1.4949 13.9951 89 89 89
-0.0622 1.4968 14.0126 79 79 79
-0.0235 1.5118 14.1537 70 70 70
0.0158 1.5074 14.1123 46 46 46
0.0548 1.4991 14.0346 60 60 60
0.0937 1.4966 14.0109 90 90 90
0.1321 1.4900 13.9490 93 93 93
0.1693 1.4761 13.8191 93 93 93
0.3386 1.5468 14.4814 94 94 94
0.3779 1.5431 14.4461 93 93 93
0.4100 1.5132 14.1665 90 90 90
0.4458 1.5008 14.0506 92 92 92
0.6327 1.4809 13.8640 91 91 91
0.6681 1.4738 13.7981 94 94 94
0.7022 1.4649 13.7144 96 96 96
0.7237 1.4319 13.4052 98 98 98
0.7530 1.4169 13.2653 102 102 102
0.7813 1.4014 13.1197 105 105 105
0.8199 1.4049 13.1531 104 104 104
1.0907 1.5859 14.8476 102 102 102
1.1222 1.5722 14.7190 105 105 105
1.1566 1.5633 14.6356 104 104 104
1.1955 1.5610 14.6138 106 106 106
1.2214 1.5423 14.4388 106 106 106
1.2782 1.5626 14.6295 104 104 104
1.4044 1.6142 15.1118 93 93 93
1.4576 1.6266 15.2278 103 103 103
1.4911 1.6169 15.1377 102 102 102
1.5330 1.6167 15.1360 100 100 100
1.5668 1.6082 15.0563 106 106 106
1.6004 1.5999 14.9781 116 116 116
1.6306 1.5888 14.8743 108 108 108
1.6632 1.5804 14.7958 109 109 109
1.6966 1.5732 14.7284 123 123 123
1.7210 1.5582 14.5882 137 137 137
1.7376 1.5370 14.3890 130 130 130
1.7476 1.5110 14.1462 91 91 91
1.7644 1.4920 13.9679 65 65 65
1.7856 1.4773 13.8308 63 63 63
1.8079 1.4642 13.7079 62 62 62
1.8323 1.4533 13.6062 84 84 84
1.8544 1.4411 13.4911 84 84 84
1.8744 1.4277 13.3665 88 88 88
1.8984 1.4178 13.2739 87 87 87
1.9299 1.4139 13.2370 75 75 75
1.9601 1.4091 13.1920 51 51 51
1.9886 1.4033 13.1380 57 57 57
2.0172 1.3978 13.0865 73 73 73
2.0520 1.3967 13.0764 83 83 83
2.0849 1.3944 13.0546 73 73 73
2.1243 1.3964 13.0735 66 66 66
2.1573 1.3943 13.0531 68 68 68
2.2073 1.4030 13.1347 81 81 81
2.1825 1.3646 12.7755 86 86 86
2.1173 1.3026 12.1952 75 75 75
2.0114 1.1991 11.2256 77 77 77
2.0408 1.1980 11.2153 78 78 78
2.0671 1.1951 11.1887 67 67 67
2.0989 1.1955 11.1923 52 52 52
2.1276 1.1941 11.1793 43 43 43
2.1558 1.1925 11.1643 28 28 28
2.1839 1.1909 11.1494 13 13 13
2.2103 1.1884 11.1259 20 20 20
2.2395 1.1875 11.1172 15 15 15
2.2702 1.1874 11.1162 12 12 12
2.2976 1.1856 11.0992 16 16 16
2.3213 1.1819 11.0649 21 21 21
2.3292 1.1704 10.9572 23 23 23
2.2508 1.1164 10.4519 26 26 26
2.1951 1.0749 10.0629 29 29 29
2.1854 1.0567 9.8924 29 29 29
2.1717 0.8832 8.2684 26 26 26
2.2008 0.8856 8.2913 25 25 25
2.2152 0.8822 8.2589 23 23 23
2.2293 0.8787 8.2262 34 34 34
2.2286 0.8695 8.1403 39 39 39
2.2270 0.8601 8.0523 29 29 29
2.4032 0.7995 7.4847 19 19 19
2.4154 0.7967 7.4583 23 23 23
2.4305 0.7948 7.4409 37 37 37
2.4376 0.7904 7.3996 43 43 43
2.4585 0.7905 7.4004 50 50 50
2.4823 0.7915 7.4101 46 46 46
2.4953 0.7891 7.3876 33 33 33
2.5098 0.7872 7.3698 35 35 35
2.5233 0.7850 7.3493 38 38 38
2.5414 0.7843 7.3428 43 43 43
2.5632 0.7847 7.3467 48 48 48
2.5801 0.7836 7.3364 54 54 54
2.5993 0.7833 7.3329 59 59 59
2.6178 0.7827 7.3278 58 58 58
2.6371 0.7824 7.3247 33 33 33
2.6566 0.7821 7.3224 29 29 29
2.6749 0.7815 7.3166 31 31 31
2.6912 0.7803 7.3055 32 32 32
2.7091 0.7796 7.2991 33 33 33
2.7266 0.7788 7.2916 32 32 32
2.7591 0.7823 7.3241 31 31 31
2.8196 0.7936 7.4296 29 29 29
2.9330 0.8136 7.6169 34 34 34
2.9380 0.8091 7.5752 34 34 34
2.9999 0.8145 7.6252 41 41 41
3.0228 0.8150 7.6296 44 44 44
3.0373 0.8131 7.6127 46 46 46
2.9816 0.7873 7.3703 48 48 48
2.9716 0.7793 7.2955 49 49 49
2.8979 0.7548 7.0662 51 51 51
2.9760 0.7699 7.2079 51 51 51
2.9803 0.7659 7.1700 53 53 53
3.0120 0.7689 7.1980 55 55 55
3.0336 0.7692 7.2016 56 56 56
3.0536 0.7692 7.2015 56 56 56
3.0733 0.7692 7.2008 52 52 52
3.0933 0.7691 7.2007 53 53 53
3.1138 0.7693 7.2017 53 53 53
3.1342 0.7694 7.2027 53 53 53
3.1545 0.7694 7.2033 52 52 52
3.1954 0.7745 7.2506 44 44 44
3.1922 0.7688 7.1978 40 40 40
3.2585 0.7799 7.3016 36 36 36
3.4825 0.8083 7.5677 31 31 31
3.4049 0.7856 7.3545 29 29 29
3.3626 0.7712 7.2198 27 27 27
3.3579 0.7655 7.1669 24 24 24
3.4280 0.7723 7.2307 22 22 22
3.3810 0.7573 7.0898 22 22 22
3.4586 0.7702 7.2104 23 23 23
3.4864 0.7719 7.2266 22 22 22
3.5249 0.7760 7.2645 19 19 19
3.5475 0.7765 7.2694 16 16 16
3.5700 0.7770 7.2740 27 27 27
3.6215 0.7837 7.3373 37 37 37
3.6592 0.7875 7.3722 32 32 32
3.6806 0.7876 7.3738 28 28 28
3.7011 0.7876 7.3739 25 25 25
3.7281 0.7890 7.3868 23 23 23
3.7623 0.7919 7.4137 22 22 22
3.7857 0.7925 7.4190 21 21 21
3.8070 0.7926 7.4204 18 18 18
3.8242 0.7919 7.4136 17 17 17
3.8702 0.7971 7.4626 17 17 17
3.9048 0.8000 7.4892 17 17 17
5.7362 1.1387 10.6604 14 14 14
5.7673 1.1390 10.6630 13 13 13
5.7681 1.1333 10.6099 12 12 12
5.8368 1.1410 10.6817 11 11 11
5.8656 1.1408 10.6800 11 11 11
5.8896 1.1397 10.6697 10 10 10
5.9081 1.1375 10.6494 9 9 9
5.9305 1.1361 10.6364 11 11 11
5.9305 1.1305 10.5837 13 13 13
5.9433 1.1273 10.5541 12 12 12
5.9617 1.1253 10.5347 10 10 10
5.9705 1.1214 10.4986 10 10 10
3.3375 0.4428 4.1451 10 10 10
3.3599 0.4442 4.1585 9 9 9
3.3672 0.4436 4.1532 9 9 9
3.3498 0.4398 4.1177 10 10 10
3.3486 0.4382 4.1021 11 11 11
3.3568 0.4377 4.0982 19 19 19
3.3644 0.4373 4.0936 28 28 28
3.3714 0.4367 4.0883 29 29 29
3.3841 0.4369 4.0898 32 32 32
3.4268 0.4409 4.1276 48 48 48
3.4407 0.4412 4.1304 71 71 71
3.4521 0.4412 4.1304 98 98 98
3.4632 0.4411 4.1299 121 121 121
3.4747 0.4411 4.1299 117 117 117
3.4871 0.4413 4.1310 58 58 58
3.5017 0.4416 4.1347 27 27 27
3.5191 0.4424 4.1417 18 18 18
3.5378 0.4433 4.1501 13 13 13
3.5496 0.4433 4.1503 11 11 11
3.5722 0.4447 4.1632 10 10 10
3.5833 0.4446 4.1627 9 9 9
3.5636 0.4408 4.1265 9 9 9
-10.1030 1.6964 15.4790 108 108 108
-10.0453 1.6940 15.4564 110 110 110
-10.0088 1.6951 15.4664 110 110 110
-9.9964 1.7003 15.5140 108 108 108
-9.9701 1.7032 15.5403 103 103 103
-9.8975 1.6981 15.4943 100 100 100
-9.7998 1.6887 15.4085 100 100 100
-9.6279 1.6664 15.2047 97 97 97
-6.5482 1.2486 11.3923 100 100 100
-6.4817 1.2419 11.3315 99 99 99
-6.4224 1.2365 11.2826 92 92 92
-6.3709 1.2326 11.2471 91 91 91
-6.3281 1.2304 11.2267 97 97 97
-6.2879 1.2287 11.2107 103 103 103
-6.2490 1.2271 11.1969 120 120 120
-6.2077 1.2251 11.1787 124 124 124
-6.1814 1.2261 11.1873 112 112 112
-6.1537 1.2268 11.1936 109 109 109
-6.1072 1.2237 11.1654 105 105 105
-6.0839 1.2253 11.1799 106 106 106
-6.0753 1.2298 11.2213 107 107 107
-6.0624 1.2335 11.2553 107 107 107
-6.0038 1.2280 11.2044 98 98 98
-5.9620 1.2258 11.1845 104 104 104
-5.9086 1.2212 11.1425 107 107 107
-5.8957 1.2249 11.1767 109 109 109
-5.8116 1.2139 11.0758 109 109 109
-5.6216 1.2399 11.3135 117 117 117
-5.6094 1.2442 11.3526 129 129 129
-5.5873 1.2463 11.3720 137 137 137
-5.5541 1.2460 11.3686 127 127 127
-5.5194 1.2453 11.3623 121 121 121
-5.4991 1.2478 11.3858 117 117 117
-5.4753 1.2497 11.4023 94 94 94
-5.4432 1.2496 11.4014 111 111 111
-5.4242 1.2525 11.4281 126 126 126
-5.4042 1.2552 11.4533 127 127 127
-5.3956 1.2607 11.5027 137 137 137
-5.4438 1.2795 11.6747 140 140 140
-5.4273 1.2833 11.7092 142 142 142
-5.4890 1.3057 11.9140 142 142 142
-5.5197 1.3210 12.0533 142 142 142
-5.4914 1.3223 12.0648 146 146 146
-5.4568 1.3220 12.0625 144 144 144
-5.4135 1.3196 12.0409 145 145 145
-5.3811 1.3199 12.0434 146 146 146
-5.3530 1.3213 12.0556 148 148 148
-5.3465 1.3280 12.1167 148 148 148
-5.3180 1.3293 12.1287 145 145 145
-5.0524 1.4360 13.1027 152 152 152
-5.0608 1.4489 13.2199 157 157 157
-5.0567 1.4583 13.3058 160 160 160
-5.0440 1.4654 13.3704 159 159 159
-5.0420 1.4756 13.4643 160 160 160
-5.0673 1.4942 13.6332 156 156 156
-5.0366 1.4963 13.6526 151 151 151
-5.0232 1.5036 13.7197 151 151 151
-5.0082 1.5106 13.7836 149 149 149
-5.0019 1.5204 13.8724 161 161 161
-4.9938 1.5297 13.9577 165 165 165
-5.0062 1.5456 14.1022 165 165 165
-5.0386 1.5678 14.3054 153 153 153
-5.0639 1.5882 14.4916 136 136 136
-5.1053 1.6141 14.7274 129 129 129
-5.1209 1.6321 14.8919 138 138 138
-5.1254 1.6469 15.0267 146 146 146
-5.1318 1.6625 15.1691 149 149 149
-5.1354 1.6774 15.3056 142 142 142
-5.1267 1.6886 15.4076 135 135 135
-5.1127 1.6982 15.4949 132 132 132
-5.1037 1.7096 15.5993 131 131 131
-5.0865 1.7185 15.6800 131 131 131
-5.0787 1.7307 15.7915 126 126 126
-5.0672 1.7418 15.8932 126 126 126
-5.0458 1.7497 15.9653 125 125 125
-5.0333 1.7609 16.0671 124 124 124
-5.0098 1.7684 16.1355 123 123 123
-4.9592 1.7664 16.1170 120 120 120
-4.9075 1.7639 16.0944 119 119 119
-4.7828 1.7349 15.8300 120 120 120
-3.5890 1.5268 13.9314 100 100 100
-3.5417 1.5231 13.8977 91 91 91
-3.4849 1.5322 13.9800 108 108 108
-3.4516 1.5347 14.0027 117 117 117
-3.3920 1.5254 13.9183 121 121 121
-2.2333 1.5013 13.6987 107 107 107
-2.1969 1.5025 13.7095 105 105 105
-2.1569 1.5012 13.6977 105 105 105
-2.1126 1.4968 13.6576 104 104 104
-2.0705 1.4939 13.6310 86 86 86
-2.0283 1.4908 13.6023 59 59 59
-1.9854 1.4869 13.5674 82 82 82
-1.9413 1.4821 13.5234 97 97 97
-1.9016 1.4805 13.5088 96 96 96
-1.8464 1.4665 13.3813 98 98 98
-1.8048 1.4629 13.3484 106 106 106
-1.7529 1.4508 13.2372 106 106 106
-1.7107 1.4462 13.1954 109 109 109
-1.6695 1.4423 13.1600 116 116 116
-1.6302 1.4399 13.1385 118 118 118
-1.5904 1.4371 13.1123 117 117 117
-1.5559 1.4388 13.1284 115 115 115
-1.5195 1.4390 13.1296 116 116 116
-1.4857 1.4416 13.1537 116 116 116
-1.4423 1.4349 13.0926 112 112 112
-1.3392 1.4820 13.5222 111 111 111
-1.3326 1.5173 13.8441 113 113 113
-1.2847 1.5063 13.7442 112 112 112
-0.8143 1.5574 14.2106 93 93 93
-0.7291 1.5444 14.0917 99 99 99
-0.4256 1.4459 13.1929 88 88 88
-0.3845 1.4294 13.0423 90 90 90
-0.3480 1.4285 13.0339 93 93 93
-0.3110 1.4253 13.0048 93 93 93
-0.2744 1.4231 12.9852 74 74 74
-0.2108 1.4835 13.5361 71 71 71
-0.1747 1.4970 13.6590 78 78 78
-0.1370 1.5001 13.6876 81 81 81
-0.0994 1.5086 13.7646 79 79 79
-0.0610 1.5051 13.7335 77 77 77
-0.0229 1.5136 13.8109 65 65 65
0.0155 1.5158 13.8309 45 45 45
0.0538 1.5102 13.7797 54 54 54
0.0918 1.5053 13.7349 87 87 87
0.1298 1.5026 13.7104 93 93 93
0.1658 1.4834 13.5353 93 93 93
0.2019 1.4720 13.4313 90 90 90
0.6919 1.4810 13.5129 91 91 91
0.7162 1.4540 13.2664 98 98 98
0.7449 1.4381 13.1218 102 102 102
0.7712 1.4193 12.9499 106 106 106
0.8092 1.4229 12.9830 104 104 104
1.0816 1.6137 14.7237 102 102 102
1.1148 1.6025 14.6216 103 103 103
1.1496 1.5944 14.5477 105 105 105
1.1822 1.5838 14.4510 105 105 105
1.2076 1.5646 14.2761 104 104 104
1.2619 1.5829 14.4425 109 109 109
1.2981 1.5781 14.3987 99 99 99
1.3553 1.5983 14.5836 87 87 87
1.4334 1.6412 14.9748 86 86 86
1.4712 1.6369 14.9356 94 94 94
1.5189 1.6436 14.9968 100 100 100
1.5527 1.6352 14.9203 101 101 101
1.5862 1.6270 14.8452 102 102 102
1.6169 1.6165 14.7493 99 99 99
1.6497 1.6084 14.6757 102 102 102
1.6823 1.6005 14.6039 105 105 105
1.7070 1.5858 14.4694 114 114 114
1.7224 1.5632 14.2629 125 125 125
1.7394 1.5431 14.0801 129 129 129
1.7565 1.5240 13.9051 106 106 106
1.7769 1.5084 13.7630 71 71 71
1.7976 1.4938 13.6303 37 37 37
1.8219 1.4827 13.5287 76 76 76
1.8466 1.4724 13.4344 127 127 127
1.8636 1.4565 13.2893 149 149 149
1.8881 1.4469 13.2019 148 148 148
1.9187 1.4423 13.1600 139 139 139
1.9483 1.4371 13.1128 133 133 133
1.9759 1.4307 13.0544 124 124 124
2.0031 1.4242 12.9949 122 122 122
2.0340 1.4206 12.9617 120 120 120
2.0622 1.4151 12.9122 119 119 119
2.0962 1.4139 12.9005 113 113 113
2.1221 1.4072 12.8401 94 94 94
2.1652 1.4120 12.8839 94 94 94
2.1673 1.3904 12.6862 99 99 99
2.1174 1.3366 12.1957 104 104 104
2.0336 1.2634 11.5281 107 107 107
2.0141 1.2319 11.2403 108 108 108
2.0433 1.2307 11.2293 121 121 121
2.0684 1.2270 11.1957 117 117 117
2.0983 1.2263 11.1893 100 100 100
2.1252 1.2239 11.1670 88 88 88
2.1548 1.2231 11.1595 52 52 52
2.1828 1.2213 11.1439 14 14 14
2.2083 1.2183 11.1162 22 22 22
2.2378 1.2175 11.1089 15 15 15
2.2693 1.2178 11.1119 12 12 12
2.2969 1.2161 11.0957 15 15 15
2.3208 1.2124 11.0628 21 21 21
2.3285 1.2005 10.9540 22 22 22
2.2510 1.1456 10.4524 25 25 25
2.1928 1.1017 10.0524 27 27 27
2.1797 1.0814 9.8668 29 29 29
2.1421 0.9034 8.2431 28 28 28
2.1771 0.9084 8.2889 30 30 30
2.1982 0.9077 8.2817 29 29 29
2.2162 0.9056 8.2627 24 24 24
2.2299 0.9018 8.2287 26 26 26
2.2321 0.8935 8.1528 25 25 25
2.2312 0.8842 8.0677 26 26 26
2.2352 0.8770 8.0016 25 25 25
2.3129 0.8253 7.5299 38 38 38
2.3294 0.8237 7.5154 31 31 31
2.3611 0.8275 7.5500 18 18 18
2.4018 0.8198 7.4804 20 20 20
2.4138 0.8169 7.4533 20 20 20
2.4301 0.8154 7.4396 19 19 19
2.4361 0.8105 7.3950 25 25 25
2.4549 0.8099 7.3896 33 33 33
2.4780 0.8107 7.3972 39 39 39
2.4953 0.8096 7.3875 40 40 40
2.5084 0.8073 7.3658 41 41 41
2.5209 0.8047 7.3424 41 41 41
2.5383 0.8037 7.3335 42 42 42
2.5610 0.8045 7.3403 45 45 45
2.5778 0.8033 7.3300 48 48 48
2.5968 0.8029 7.3261 54 54 54
2.6150 0.8022 7.3199 75 75 75
2.6345 0.8020 7.3174 52 52 52
2.6541 0.8018 7.3155 30 30 30
2.6729 0.8013 7.3112 33 33 33
2.6885 0.7999 7.2983 33 33 33
2.7075 0.7995 7.2949 34 34 34
2.7263 0.7990 7.2908 37 37 37
2.7585 0.8025 7.3224 37 37 37
2.8037 0.8097 7.3877 36 36 36
2.9659 0.8262 7.5388 44 44 44
3.0078 0.8320 7.5918 44 44 44
2.9843 0.8030 7.3265 42 42 42
2.9023 0.7756 7.0770 42 42 42
2.9756 0.7898 7.2069 42 42 42
2.9756 0.7845 7.1585 41 41 41
3.0063 0.7874 7.1844 41 41 41
3.0276 0.7877 7.1875 40 40 40
3.0480 0.7878 7.1884 36 36 36
3.0679 0.7878 7.1881 33 33 33
3.0876 0.7877 7.1875 31 31 31
3.1060 0.7873 7.1837 30 30 30
3.1270 0.7876 7.1861 29 29 29
3.1504 0.7884 7.1939 27 27 27
3.1919 0.7938 7.2427 25 25 25
3.1849 0.7870 7.1813 22 22 22
3.5984 0.8570 7.8195 17 17 17
3.4910 0.8264 7.5404 17 17 17
3.4066 0.8016 7.3143 16 16 16
3.3938 0.7939 7.2435 17 17 17
3.4517 0.7979 7.2805 16 16 16
3.3852 0.7780 7.0987 16 16 16
3.4555 0.7895 7.2040 17 17 17
3.4835 0.7914 7.2206 16 16 16
3.5262 0.7965 7.2672 14 14 14
3.5490 0.7970 7.2724 13 13 13
3.5698 0.7972 7.2737 17 17 17
3.6235 0.8046 7.3415 28 28 28
3.6617 0.8085 7.3772 31 31 31
3.6830 0.8087 7.3787 30 30 30
3.7035 0.8087 7.3787 28 28 28
3.7306 0.8101 7.3917 26 26 26
3.7630 0.8127 7.4150 23 23 23
3.7863 0.8132 7.4202 22 22 22
3.8076 0.8134 7.4215 21 21 21
3.8239 0.8125 7.4132 18 18 18
3.8697 0.8178 7.4617 17 17 17
3.9043 0.8207 7.4883 17 17 17
5.7162 1.1703 10.6784 15 15 15
5.6728 1.1554 10.5424 15 15 15
5.7192 1.1589 10.5741 16 16 16
5.7396 1.1571 10.5575 15 15 15
5.7904 1.1614 10.5968 14 14 14
5.8250 1.1624 10.6061 14 14 14
5.8557 1.1626 10.6082 13 13 13
5.8712 1.1599 10.5829 12 12 12
5.9023 1.1602 10.5859 12 12 12
5.9031 1.1546 10.5347 14 14 14
5.9116 1.1505 10.4979 15 15 15
5.9315 1.1487 10.4813 13 13 13
5.9497 1.1466 10.4622 11 11 11
6.1126 1.0272 9.3730 10 10 10
3.3372 0.4542 4.1447 9 9 9
3.3596 0.4557 4.1581 9 9 9
3.3670 0.4552 4.1530 9 9 9
3.3488 0.4511 4.1164 10 10 10
3.3482 0.4495 4.1016 11 11 11
3.3563 0.4491 4.0976 19 19 19
3.3637 0.4486 4.0928 29 29 29
3.3707 0.4480 4.0874 32 32 32
3.3831 0.4481 4.0887 33 33 33
3.4266 0.4523 4.1274 46 46 46
3.4406 0.4527 4.1304 64 64 64
3.4520 0.4527 4.1303 93 93 93
3.4631 0.4526 4.1298 119 119 119
3.4747 0.4526 4.1299 114 114 114
3.4871 0.4527 4.1310 58 58 58
3.5016 0.4531 4.1346 28 28 28
3.5190 0.4539 4.1415 18 18 18
3.5381 0.4549 4.1504 15 15 15
3.5499 0.4549 4.1507 11 11 11
3.5723 0.4563 4.1633 10 10 10
3.5834 0.4562 4.1628 10 10 10
3.5622 0.4521 4.1248 10 10 10
-6.5216 1.2751 11.3461 91 91 91
-6.4661 1.2703 11.3041 87 87 87
-6.4103 1.2655 11.2614 88 88 88
-6.3661 1.2630 11.2387 98 98 98
-6.3226 1.2606 11.2170 93 93 93
-6.2848 1.2592 11.2051 92 92 92
-6.2429 1.2571 11.1860 104 104 104
-6.2049 1.2557 11.1737 103 103 103
-6.1706 1.2550 11.1678 101 101 101
-6.1203 1.2511 11.1328 106 106 106
-6.0704 1.2472 11.0982 109 109 109
-6.0312 1.2455 11.0830 106 106 106
-6.0105 1.2476 11.1016 107 107 107
-6.0168 1.2554 11.1707 109 109 109
-5.9722 1.2525 11.1454 98 98 98
-5.9356 1.2513 11.1350 97 97 97
-5.8918 1.2486 11.1108 108 108 108
-5.8728 1.2512 11.1334 113 113 113
-5.8392 1.2506 11.1284 120 120 120
-5.8805 1.2662 11.2669 122 122 122
-5.8798 1.2728 11.3258 118 118 118
-5.8607 1.2755 11.3498 113 113 113
-5.8067 1.2706 11.3062 108 108 108
-5.7800 1.2716 11.3156 105 105 105
-5.7708 1.2766 11.3595 107 107 107
-5.7330 1.2752 11.3471 117 117 117
-5.6893 1.2725 11.3230 120 120 120
-5.6491 1.2705 11.3056 114 114 114
-5.5855 1.2632 11.2409 127 127 127
-5.5641 1.2655 11.2610 129 129 129
-5.5506 1.2696 11.2971 120 120 120
-5.5427 1.2750 11.3453 119 119 119
-5.5160 1.2761 11.3553 108 108 108
-5.4954 1.2787 11.3781 85 85 85
-5.4620 1.2783 11.3746 74 74 74
-5.4276 1.2776 11.3687 93 93 93
-5.4072 1.2803 11.3925 111 111 111
-5.3863 1.2828 11.4153 125 125 125
-5.3741 1.2875 11.4569 136 136 136
-5.4053 1.3027 11.5923 122 122 122
-5.4135 1.3125 11.6796 113 113 113
-5.4775 1.3361 11.8890 116 116 116
-5.5030 1.3504 12.0169 128 128 128
-5.4745 1.3517 12.0278 134 134 134
-5.4532 1.3547 12.0546 133 133 133
-5.4256 1.3562 12.0678 135 135 135
-5.4027 1.3589 12.0917 138 138 138
-5.3767 1.3608 12.1088 146 146 146
-5.3531 1.3634 12.1319 146 146 146
-5.3229 1.3643 12.1398 146 146 146
-5.2973 1.3664 12.1586 149 149 149
-5.2679 1.3675 12.1688 146 146 146
-5.0939 1.4531 12.9303 152 152 152
-5.0661 1.4554 12.9511 152 152 152
-5.0339 1.4566 12.9612 154 154 154
-5.0391 1.4686 13.0682 158 158 158
-5.0489 1.4821 13.1886 161 161 161
-5.0286 1.4870 13.2318 161 161 161
-5.0155 1.4940 13.2946 161 161 161
-5.0221 1.5071 13.4110 158 158 158
-5.0427 1.5246 13.5669 155 155 155
-5.0165 1.5281 13.5981 160 160 160
-5.0029 1.5356 13.6642 175 175 175
-4.9997 1.5464 13.7602 174 174 174
-4.9945 1.5567 13.8520 161 161 161
-4.9918 1.5679 13.9520 141 141 141
-5.0069 1.5850 14.1041 134 134 134
-5.0400 1.6081 14.3093 134 134 134
-5.0643 1.6287 14.4929 139 139 139
-5.1042 1.6547 14.7242 144 144 144
-5.1138 1.6712 14.8713 145 145 145
-5.1162 1.6856 14.9996 137 137 137
-5.1271 1.7031 15.1553 130 130 130
-5.1222 1.7156 15.2664 133 133 133
-5.0871 1.7181 15.2886 131 131 131
-5.0715 1.7273 15.3702 128 128 128
-5.0557 1.7365 15.4524 130 130 130
-5.0339 1.7439 15.5178 127 127 127
-5.0219 1.7548 15.6149 122 122 122
-5.0032 1.7635 15.6925 121 121 121
-4.9811 1.7712 15.7606 120 120 120
-4.9558 1.7778 15.8198 121 121 121
-4.9053 1.7755 15.7988 118 118 118
-4.8041 1.7546 15.6128 119 119 119
-2.2152 1.5270 13.5882 101 101 101
-2.1788 1.5280 13.5969 103 103 103
-2.1273 1.5182 13.5098 101 101 101
-2.0851 1.5149 13.4803 105 105 105
-2.0444 1.5125 13.4591 105 105 105
-2.0051 1.5111 13.4464 86 86 86
-1.9694 1.5124 13.4581 65 65 65
-1.9259 1.5077 13.4162 70 70 70
-1.8887 1.5078 13.4171 91 91 91
-1.8310 1.4912 13.2691 101 101 101
-1.7930 1.4903 13.2614 97 97 97
-1.7453 1.4811 13.1795 100 100 100
-1.7014 1.4749 13.1240 94 94 94
-1.6686 1.4782 13.1534 90 90 90
-1.6298 1.4761 13.1351 103 103 103
-1.5900 1.4731 13.1083 106 106 106
-1.5546 1.4742 13.1178 113 113 113
-1.5180 1.4740 13.1165 114 114 114
-1.4841 1.4766 13.1397 110 110 110
-1.4405 1.4694 13.0756 110 110 110
-1.3351 1.5150 13.4814 115 115 115
-1.3229 1.5445 13.7439 110 110 110
-1.2300 1.5241 13.5625 109 109 109
-1.0420 1.5251 13.5710 66 66 66
-0.8065 1.5817 14.0746 98 98 98
-0.7699 1.5869 14.1210 92 92 92
-0.6496 1.4911 13.2686 87 87 87
-0.4222 1.4705 13.0849 76 76 76
-0.3825 1.4579 12.9730 77 77 77
-0.3465 1.4584 12.9777 81 81 81
-0.3093 1.4531 12.9305 77 77 77
-0.2724 1.4486 12.8906 62 62 62
-0.2394 1.4659 13.0438 60 60 60
-0.2067 1.4920 13.2765 74 74 74
-0.1712 1.5045 13.3876 83 83 83
-0.1348 1.5143 13.4747 82 82 82
-0.0981 1.5263 13.5819 81 81 81
-0.0602 1.5219 13.5428 73 73 73
-0.0225 1.5263 13.5819 68 68 68
0.0153 1.5301 13.6160 69 69 69
0.0530 1.5244 13.5652 72 72 72
0.0905 1.5211 13.5359 73 73 73
0.1280 1.5192 13.5185 74 74 74
0.1633 1.4982 13.3319 77 77 77
0.1983 1.4827 13.1933 84 84 84
0.2334 1.4721 13.0995 91 91 91
0.6783 1.4888 13.2479 94 94 94
0.7093 1.4766 13.1393 99 99 99
0.7388 1.4626 13.0146 102 102 102
0.7627 1.4393 12.8073 105 105 105
0.7976 1.4380 12.7955 106 106 106
0.8095 1.3970 12.4315 108 108 108
1.1391 1.6199 14.4143 105 105 105
1.1696 1.6067 14.2974 106 106 106
1.1940 1.5863 14.1156 111 111 111
1.2262 1.5771 14.0339 111 111 111
1.2675 1.5800 14.0592 108 108 108
1.3069 1.5803 14.0622 98 98 98
1.3472 1.5818 14.0752 90 90 90
1.4358 1.6381 14.5764 89 89 89
1.4929 1.6565 14.7403 94 94 94
1.5307 1.6530 14.7089 99 99 99
1.5645 1.6455 14.6426 97 97 97
1.5955 1.6355 14.5535 98 98 98
1.6267 1.6263 14.4714 100 100 100
1.6581 1.6175 14.3937 104 104 104
1.6826 1.6028 14.2626 103 103 103
1.6999 1.5819 14.0768 108 108 108
1.7213 1.5658 13.9331 122 122 122
1.7468 1.5540 13.8278 129 129 129
1.7701 1.5408 13.7108 131 131 131
1.7878 1.5234 13.5558 102 102 102
1.8122 1.5123 13.4569 70 70 70
1.8326 1.4984 13.3331 56 56 56
1.8530 1.4849 13.2136 101 101 101
1.8787 1.4762 13.1362 150 150 150
1.9093 1.4717 13.0957 158 158 158
1.9401 1.4674 13.0574 157 157 157
1.9681 1.4612 13.0028 152 152 152
1.9942 1.4539 12.9370 127 127 127
2.0244 1.4497 12.9000 106 106 106
2.0497 1.4423 12.8341 104 104 104
2.0821 1.4400 12.8138 106 106 106
2.1081 1.4335 12.7555 104 104 104
2.1543 1.4406 12.8192 101 101 101
2.1631 1.4229 12.6616 99 99 99
2.1130 1.3677 12.1702 102 102 102
2.0314 1.2941 11.5157 102 102 102
2.0135 1.2628 11.2370 108 108 108
2.0424 1.2613 11.2240 104 104 104
2.0670 1.2573 11.1881 102 102 102
2.0969 1.2566 11.1817 112 112 112
2.1236 1.2540 11.1587 113 113 113
2.1535 1.2533 11.1528 79 79 79
2.1800 1.2507 11.1296 17 17 17
2.2077 1.2489 11.1131 22 22 22
2.2380 1.2485 11.1101 16 16 16
2.2698 1.2490 11.1141 13 13 13
2.2973 1.2472 11.0979 12 12 12
2.3209 1.2433 11.0633 18 18 18
2.3288 1.2312 10.9555 22 22 22
2.2512 1.1748 10.4538 23 23 23
2.1909 1.1287 10.0437 25 25 25
2.1769 1.1074 9.8538 27 27 27
2.1426 0.9266 8.2452 28 28 28
2.1694 0.9282 8.2597 30 30 30
2.1907 0.9275 8.2534 32 32 32
2.2096 0.9258 8.2382 32 32 32
2.2278 0.9239 8.2209 27 27 27
2.2387 0.9189 8.1770 24 24 24
2.2399 0.9102 8.0990 22 22 22
2.2449 0.9031 8.0365 23 23 23
2.2632 0.9015 8.0218 25 25 25
2.2623 0.8670 7.7145 14 14 14
2.3283 0.8442 7.5119 28 28 28
2.4037 0.8413 7.4864 23 23 23
2.4163 0.8385 7.4610 21 21 21
2.4329 0.8370 7.4483 20 20 20
2.4411 0.8327 7.4101 17 17 17
2.4599 0.8322 7.4049 18 18 18
2.4814 0.8324 7.4074 19 19 19
2.5028 0.8327 7.4097 24 24 24
2.5139 0.8296 7.3818 28 28 28
2.5226 0.8257 7.3474 32 32 32
2.5388 0.8243 7.3352 36 36 36
2.5619 0.8252 7.3428 39 39 39
2.5779 0.8238 7.3303 41 41 41
2.5969 0.8233 7.3264 43 43 43
2.6141 0.8223 7.3175 48 48 48
2.6318 0.8215 7.3100 41 41 41
2.6504 0.8209 7.3051 25 25 25
2.6692 0.8205 7.3009 23 23 23
2.6832 0.8186 7.2839 23 23 23
2.7032 0.8185 7.2831 25 25 25
2.7252 0.8190 7.2879 25 25 25
2.7566 0.8223 7.3174 25 25 25
2.7840 0.8244 7.3360 25 25 25
2.8099 0.8260 7.3504 25 25 25
2.8514 0.8322 7.4050 24 24 24
2.8746 0.8329 7.4117 24 24 24
2.9965 0.8500 7.5633 23 23 23
3.0176 0.8500 7.5634 23 23 23
2.9871 0.8241 7.3335 21 21 21
2.9047 0.7960 7.0829 20 20 20
2.9708 0.8086 7.1952 20 20 20
2.9717 0.8034 7.1491 21 21 21
3.0007 0.8059 7.1709 20 20 20
3.0220 0.8062 7.1742 20 20 20
3.0425 0.8064 7.1753 19 19 19
3.0623 0.8063 7.1750 18 18 18
3.0816 0.8062 7.1735 16 16 16
3.0994 0.8056 7.1686 17 17 17
3.1200 0.8058 7.1700 16 16 16
3.1450 0.8070 7.1814 16 16 16
3.1889 0.8132 7.2358 16 16 16
3.4757 0.8437 7.5075 16 16 16
3.4013 0.8207 7.3029 16 16 16
3.3898 0.8131 7.2349 16 16 16
3.4213 0.8158 7.2591 15 15 15
3.4541 0.8187 7.2856 14 14 14
3.3841 0.7975 7.0964 14 14 14
3.4503 0.8084 7.1933 14 14 14
3.4795 0.8105 7.2122 14 14 14
3.5257 0.8166 7.2661 14 14 14
3.5492 0.8173 7.2728 16 16 16
3.5775 0.8192 7.2892 18 18 18
3.6177 0.8237 7.3295 27 27 27
3.6472 0.8258 7.3479 30 30 30
3.6682 0.8259 7.3491 31 31 31
3.6885 0.8259 7.3489 30 30 30
3.7135 0.8269 7.3578 27 27 27
3.7532 0.8311 7.3956 25 25 25
3.7769 0.8318 7.4018 23 23 23
3.7975 0.8318 7.4018 24 24 24
3.8104 0.8301 7.3868 20 20 20
3.8416 0.8325 7.4076 19 19 19
3.8798 0.8362 7.4411 19 19 19
5.6566 1.1875 10.5670 16 16 16
5.6496 1.1799 10.4994 16 16 16
5.6979 1.1839 10.5347 16 16 16
5.7316 1.1848 10.5427 16 16 16
5.7838 1.1895 10.5847 16 16 16
5.8160 1.1901 10.5897 16 16 16
5.8425 1.1894 10.5842 16 16 16
5.8556 1.1861 10.5548 15 15 15
5.8905 1.1873 10.5648 13 13 13
5.8959 1.1825 10.5220 13 13 13
5.9080 1.1790 10.4914 13 13 13
5.9314 1.1779 10.4811 13 13 13
5.9446 1.1747 10.4531 12 12 12
5.9527 1.1706 10.4163 11 11 11
5.8358 1.1257 10.0167 10 10 10
6.1221 1.0550 9.3875 10 10 10
3.3400 0.4662 4.1482 9 9 9
3.3606 0.4674 4.1593 10 10 10
3.3685 0.4669 4.1549 10 10 10
3.3496 0.4627 4.1174 10 10 10
3.3482 0.4609 4.1017 11 11 11
3.3562 0.4605 4.0975 20 20 20
3.3635 0.4599 4.0925 28 28 28
3.3709 0.4594 4.0876 30 30 30
3.3824 0.4594 4.0878 33 33 33
3.4268 0.4638 4.1275 46 46 46
3.4409 0.4642 4.1307 64 64 64
3.4523 0.4642 4.1307 90 90 90
3.4635 0.4642 4.1302 117 117 117
3.4750 0.4642 4.1303 113 113 113
3.4873 0.4643 4.1313 58 58 58
3.5018 0.4647 4.1348 31 31 31
3.5189 0.4654 4.1413 20 20 20
3.5386 0.4665 4.1510 15 15 15
3.5507 0.4666 4.1516 14 14 14
3.5725 0.4679 4.1636 12 12 12
3.5840 0.4679 4.1634 12 12 12
3.5641 0.4638 4.1270 12 12 12
-6.6675 1.2511 10.8637 100 100 100
-6.5601 1.2365 10.7373 104 104 104
-6.4731 1.2257 10.6433 96 96 96
-6.4148 1.2203 10.5961 84 84 84
-6.3761 1.2185 10.5807 74 74 74
-6.4812 1.2678 11.0093 81 81 81
-6.5208 1.2816 11.1291 83 83 83
-6.5036 1.2844 11.1528 80 80 80
-6.4846 1.2868 11.1735 87 87 87
-6.4912 1.2943 11.2388 86 86 86
-6.4497 1.2922 11.2209 80 80 80
-6.4020 1.2889 11.1920 79 79 79
-6.3450 1.2837 11.1468 93 93 93
-6.3019 1.2812 11.1253 96 96 96
-6.2694 1.2809 11.1225 84 84 84
-6.2373 1.2807 11.1206 79 79 79
-6.1997 1.2793 11.1086 82 82 82
-6.1464 1.2746 11.0683 86 86 86
-6.1002 1.2714 11.0403 89 89 89
-6.0590 1.2692 11.0213 93 93 93
-6.0159 1.2666 10.9986 95 95 95
-5.9789 1.2653 10.9868 94 94 94
-5.9507 1.2658 10.9911 97 97 97
-5.9444 1.2709 11.0362 98 98 98
-5.9062 1.2693 11.0223 92 92 92
-5.8939 1.2733 11.0568 83 83 83
-5.8503 1.2705 11.0326 85 85 85
-5.8205 1.2707 11.0342 86 86 86
-5.8118 1.2755 11.0762 88 88 88
-5.8701 1.2952 11.2469 95 95 95
-5.8759 1.3034 11.3184 97 97 97
-5.8553 1.3059 11.3395 98 98 98
-5.7936 1.2991 11.2808 99 99 99
-5.7679 1.3004 11.2919 94 94 94
-5.7576 1.3052 11.3335 87 87 87
-5.7330 1.3068 11.3472 97 97 97
-5.6984 1.3061 11.3411 104 104 104
-5.6549 1.3033 11.3172 107 107 107
-5.5944 1.2966 11.2588 111 111 111
-5.5742 1.2992 11.2813 105 105 105
-5.5585 1.3028 11.3132 104 104 104
-5.5498 1.3082 11.3599 103 103 103
-5.5207 1.3088 11.3651 95 95 95
-5.5024 1.3120 11.3926 86 86 86
-5.4677 1.3113 11.3864 80 80 80
-5.4342 1.3108 11.3825 102 102 102
-5.4112 1.3129 11.4008 106 106 106
-5.3901 1.3155 11.4232 107 107 107
-5.3808 1.3210 11.4712 106 106 106
-5.4101 1.3362 11.6026 95 95 95
-5.4185 1.3463 11.6903 98 98 98
-5.4660 1.3663 11.8641 105 105 105
-5.4917 1.3810 11.9923 105 105 105
-5.4631 1.3823 12.0028 111 111 111
-5.4411 1.3851 12.0279 121 121 121
-5.4131 1.3866 12.0401 134 134 134
-5.3851 1.3879 12.0522 141 141 141
-5.3504 1.3877 12.0497 144 144 144
-5.3210 1.3887 12.0591 150 150 150
-5.2914 1.3898 12.0680 155 155 155
-5.2629 1.3911 12.0797 151 151 151
-5.2303 1.3914 12.0820 152 152 152
-5.2994 1.4189 12.3207 153 153 153
-5.0257 1.4387 12.4927 159 159 159
-5.0638 1.4597 12.6750 156 156 156
-5.0556 1.4675 12.7432 153 153 153
-5.0383 1.4728 12.7892 157 157 157
-5.0168 1.4770 12.8252 158 158 158
-4.9961 1.4814 12.8638 158 158 158
-4.9953 1.4919 12.9545 156 156 156
-5.0006 1.5043 13.0626 157 157 157
-4.9943 1.5134 13.1415 156 156 156
-4.9882 1.5227 13.2222 160 160 160
-4.9917 1.5351 13.3298 167 167 167
-5.0248 1.5568 13.5187 178 178 178
-5.0088 1.5636 13.5773 181 181 181
-4.9944 1.5709 13.6411 176 176 176
-4.9942 1.5829 13.7452 158 158 158
-4.9941 1.5951 13.8508 139 139 139
-4.9920 1.6068 13.9528 132 132 132
-5.0069 1.6242 14.1041 142 142 142
-5.0364 1.6467 14.2993 153 153 153
-5.0432 1.6621 14.4324 150 150 150
-5.0813 1.6881 14.6582 141 141 141
-5.0986 1.7075 14.8272 137 137 137
-5.0895 1.7184 14.9214 135 135 135
-5.0742 1.7273 14.9988 131 131 131
-5.0665 1.7390 15.1004 134 134 134
-5.0348 1.7425 15.1313 133 133 133
-5.0227 1.7530 15.2221 131 131 131
-5.0094 1.7632 15.3109 129 129 129
-4.9680 1.7637 15.3148 127 127 127
-4.9257 1.7638 15.3155 123 123 123
-4.8932 1.7674 15.3474 124 124 124
-4.8593 1.7706 15.3752 120 120 120
-4.7775 1.7563 15.2505 117 117 117
-3.7560 1.5303 13.2881 113 113 113
-3.6829 1.5154 13.1587 117 117 117
-3.4646 1.5656 13.5951 128 128 128
-2.9968 1.5202 13.2007 111 111 111
-2.1503 1.4219 12.3468 108 108 108
-2.0934 1.4067 12.2154 108 108 108
-2.0624 1.4088 12.2334 114 114 114
-2.0309 1.4106 12.2487 115 115 115
-1.9995 1.5159 13.1634 115 115 115
-1.9742 1.5247 13.2396 102 102 102
-1.9604 1.5428 13.3964 72 72 72
-1.9117 1.5337 13.3174 75 75 75
-1.8866 1.5434 13.4023 95 95 95
-1.8282 1.5257 13.2488 111 111 111
-1.7906 1.5252 13.2437 110 110 110
-1.7426 1.5154 13.1592 116 116 116
-1.6975 1.5079 13.0935 108 108 108
-1.6641 1.5106 13.1174 75 75 75
-1.6250 1.5083 13.0970 70 70 70
-1.5879 1.5076 13.0915 102 102 102
-1.5531 1.5092 13.1052 114 114 114
-1.5166 1.5091 13.1046 112 112 112
-1.4820 1.5111 13.1212 110 110 110
-1.4371 1.5023 13.0449 111 111 111
-1.3117 1.5694 13.6280 112 112 112
-0.7965 1.6006 13.8990 96 96 96
-0.7573 1.5995 13.8893 92 92 92
-0.4830 1.4704 12.7686 89 89 89
-0.3805 1.4864 12.9071 85 85 85
-0.3453 1.4893 12.9326 92 92 92
-0.3082 1.4842 12.8877 94 94 94
-0.2718 1.4810 12.8606 92 92 92
-0.2387 1.4979 13.0074 91 91 91
-0.2060 1.5233 13.2280 81 81 81
-0.1710 1.5399 13.3715 84 84 84
-0.1340 1.5425 13.3942 84 84 84
-0.0975 1.5536 13.4910 83 83 83
-0.0597 1.5478 13.4405 85 85 85
-0.0223 1.5502 13.4615 80 80 80
0.0152 1.5565 13.5160 75 75 75
0.0525 1.5494 13.4539 76 76 76
0.0896 1.5429 13.3976 75 75 75
0.1268 1.5415 13.3857 70 70 70
0.1611 1.5147 13.1527 55 55 55
0.2285 1.4769 12.8246 70 70 70
0.4540 1.5152 13.1570 81 81 81
0.4873 1.5048 13.0665 85 85 85
0.5203 1.4953 12.9843 76 76 76
0.6651 1.4958 12.9887 95 95 95
0.6981 1.4892 12.9310 97 97 97
0.7306 1.4821 12.8701 99 99 99
0.7526 1.4555 12.6386 102 102 102
0.7850 1.4503 12.5938 104 104 104
0.8033 1.4207 12.3364 104 104 104
0.8264 1.4018 12.1722 103 103 103
1.1589 1.6315 14.1667 108 108 108
1.1909 1.6213 14.0787 108 108 108
1.2236 1.6128 14.0044 108 108 108
1.2567 1.6053 13.9398 110 110 110
1.2960 1.6060 13.9456 108 108 108
1.3343 1.6053 13.9400 103 103 103
1.3660 1.5970 13.8677 97 97 97
1.4587 1.6586 14.4026 90 90 90
1.5044 1.6648 14.4561 91 91 91
1.5445 1.6647 14.4553 101 101 101
1.5779 1.6575 14.3930 100 100 100
1.6053 1.6446 14.2811 99 99 99
1.6330 1.6326 14.1764 104 104 104
1.6579 1.6184 14.0530 97 97 97
1.6795 1.6016 13.9078 99 99 99
1.7044 1.5888 13.7960 101 101 101
1.7304 1.5775 13.6986 105 105 105
1.7577 1.5679 13.6148 120 120 120
1.7813 1.5554 13.5064 131 131 131
1.8050 1.5435 13.4030 128 128 128
1.8253 1.5293 13.2800 79 79 79
1.8466 1.5165 13.1685 38 38 38
1.8726 1.5079 13.0940 65 65 65
1.9029 1.5031 13.0520 125 125 125
1.9349 1.4997 13.0229 156 156 156
1.9654 1.4954 12.9849 156 156 156
1.9919 1.4882 12.9227 153 153 153
2.0215 1.4835 12.8816 134 134 134
2.0454 1.4749 12.8072 108 108 108
2.0760 1.4713 12.7763 106 106 106
2.1009 1.4639 12.7119 111 111 111
2.1465 1.4709 12.7727 113 113 113
2.1583 1.4549 12.6337 113 113 113
2.1083 1.3985 12.1434 113 113 113
2.0276 1.3237 11.4942 109 109 109
2.0111 1.2926 11.2238 109 109 109
2.0398 1.2909 11.2097 108 108 108
2.0648 1.2871 11.1761 104 104 104
2.0949 1.2865 11.1709 102 102 102
2.1228 1.2845 11.1541 106 106 106
2.1527 1.2839 11.1486 91 91 91
2.1796 1.2815 11.1275 23 23 23
2.2076 1.2797 11.1123 21 21 21
2.2372 1.2790 11.1062 16 16 16
2.2690 1.2795 11.1103 13 13 13
2.2975 1.2782 11.0989 12 12 12
2.3211 1.2742 11.0641 14 14 14
2.3296 1.2621 10.9592 20 20 20
2.2518 1.2042 10.4565 23 23 23
2.1940 1.1583 10.0578 24 24 24
2.1783 1.1355 9.8603 25 25 25
2.1448 0.9505 8.2534 26 26 26
2.1678 0.9505 8.2537 29 29 29
2.1894 0.9499 8.2486 34 34 34
2.2086 0.9483 8.2346 35 35 35
2.2270 0.9464 8.2178 27 27 27
2.2445 0.9441 8.1984 15 15 15
2.2485 0.9363 8.1302 13 13 13
2.2558 0.9300 8.0755 16 16 16
2.2729 0.9278 8.0564 21 21 21
2.2738 0.9191 7.9808 24 24 24
2.2662 0.8899 7.7278 14 14 14
2.3539 0.8668 7.5270 16 16 16
2.4104 0.8645 7.5072 21 21 21
2.4226 0.8615 7.4806 22 22 22
2.4394 0.8600 7.4682 19 19 19
2.4488 0.8561 7.4337 18 18 18
2.4658 0.8548 7.4225 17 17 17
2.4867 0.8549 7.4234 18 18 18
2.5049 0.8540 7.4160 20 20 20
2.5122 0.8495 7.3770 22 22 22
2.5153 0.8437 7.3262 25 25 25
2.5253 0.8402 7.2962 26 26 26
2.5503 0.8418 7.3096 28 28 28
2.5660 0.8403 7.2965 29 29 29
2.5821 0.8389 7.2845 31 31 31
2.5975 0.8373 7.2710 32 32 32
2.6168 0.8370 7.2685 32 32 32
2.6358 0.8366 7.2650 22 22 22
2.6556 0.8365 7.2638 16 16 16
2.6757 0.8365 7.2635 17 17 17
2.6983 0.8372 7.2700 18 18 18
2.7241 0.8389 7.2850 18 18 18
2.7574 0.8429 7.3194 18 18 18
2.7868 0.8457 7.3433 19 19 19
2.8166 0.8485 7.3677 20 20 20
2.8546 0.8537 7.4132 19 19 19
2.8743 0.8534 7.4108 20 20 20
3.0128 0.8347 7.2481 19 19 19
3.5157 0.9245 8.0281 15 15 15
3.5805 0.8960 7.7805 14 14 14
3.4832 0.8664 7.5237 14 14 14
3.4047 0.8418 7.3101 14 14 14
3.3905 0.8333 7.2363 14 14 14
3.4163 0.8347 7.2485 14 14 14
3.4542 0.8391 7.2859 13 13 13
3.3867 0.8178 7.1017 13 13 13
3.4475 0.8277 7.1874 16 16 16
3.4723 0.8289 7.1973 21 21 21
3.5002 0.8307 7.2136 23 23 23
3.5414 0.8357 7.2570 26 26 26
3.5726 0.8383 7.2792 24 24 24
3.6037 0.8408 7.3013 27 27 27
3.6261 0.8413 7.3055 30 30 30
3.6467 0.8414 7.3060 31 31 31
3.6668 0.8413 7.3056 30 30 30
3.6876 0.8414 7.3064 28 28 28
3.7518 0.8514 7.3930 28 28 28
3.7732 0.8516 7.3945 26 26 26
3.7945 0.8517 7.3959 26 26 26
3.7996 0.8483 7.3659 25 25 25
3.8413 0.8530 7.4069 21 21 21
3.8774 0.8564 7.4365 20 20 20
5.6765 1.2212 10.6043 18 18 18
5.6685 1.2132 10.5346 18 18 18
5.7192 1.2177 10.5741 17 17 17
5.7498 1.2180 10.5763 17 17 17
5.7941 1.2211 10.6036 17 17 17
5.8198 1.2203 10.5966 16 16 16
5.8449 1.2194 10.5886 16 16 16
5.8662 1.2177 10.5739 15 15 15
5.8951 1.2176 10.5731 15 15 15
5.9003 1.2126 10.5298 15 15 15
5.9118 1.2090 10.4982 15 15 15
5.9310 1.2070 10.4805 16 16 16
5.9465 1.1983 10.4056 14 14 14
5.8336 1.1531 10.0129 12 12 12
5.8048 1.1001 9.5530 10 10 10
5.7931 1.0929 9.4903 9 9 9
5.8722 1.0784 9.3638 10 10 10
6.1241 1.0861 9.4308 10 10 10
6.1013 1.0774 9.3555 10 10 10
3.3415 0.4779 4.1500 12 12 12
3.3612 0.4791 4.1601 12 12 12
3.3697 0.4786 4.1563 12 12 12
3.3506 0.4743 4.1187 12 12 12
3.3486 0.4724 4.1022 13 13 13
3.3564 0.4719 4.0978 20 20 20
3.3638 0.4713 4.0929 28 28 28
3.3716 0.4708 4.0885 31 31 31
3.3825 0.4708 4.0879 32 32 32
3.4269 0.4753 4.1277 44 44 44
3.4411 0.4757 4.1310 64 64 64
3.4526 0.4757 4.1309 93 93 93
3.4637 0.4757 4.1305 124 124 124
3.4752 0.4757 4.1305 118 118 118
3.4875 0.4758 4.1315 59 59 59
3.5017 0.4762 4.1347 31 31 31
3.5185 0.4769 4.1409 21 21 21
3.5389 0.4781 4.1514 16 16 16
3.5511 0.4782 4.1521 14 14 14
3.5726 0.4795 4.1636 13 13 13
3.5842 0.4795 4.1637 13 13 13
3.5631 0.4751 4.1259 12 12 12
-6.6037 1.2576 10.6630 96 96 96
-6.5578 1.2545 10.6367 96 96 96
-6.5126 1.2515 10.6113 96 96 96
-6.4677 1.2486 10.5861 93 93 93
-6.4459 1.2500 10.5986 84 84 84
-6.4131 1.2494 10.5933 79 79 79
-6.3879 1.2502 10.6002 75 75 75
-6.4046 1.2593 10.6774 68 68 68
-6.4298 1.2702 10.7693 67 67 67
-6.4346 1.2771 10.8279 70 70 70
-6.4531 1.2928 10.9616 75 75 75
-6.4936 1.3071 11.0827 79 79 79
-6.4796 1.3105 11.1116 80 80 80
-6.4495 1.3107 11.1130 80 80 80
-6.4311 1.3133 11.1347 81 81 81
-6.4195 1.3172 11.1684 85 85 85
-6.3837 1.3163 11.1602 84 84 84
-6.3056 1.3065 11.0774 88 88 88
-6.2473 1.3008 11.0290 87 87 87
-6.2026 1.2979 11.0041 80 80 80
-6.1776 1.2990 11.0141 79 79 79
-6.1343 1.2964 10.9914 80 80 80
-6.0802 1.2914 10.9491 81 81 81
-6.0336 1.2879 10.9199 85 85 85
-5.9878 1.2846 10.8918 82 82 82
-5.9480 1.2826 10.8744 82 82 82
-5.9074 1.2803 10.8555 86 86 86
-5.8426 1.2728 10.7915 84 84 84
-5.8224 1.2749 10.8098 72 72 72
-5.8255 1.2822 10.8716 71 71 71
-5.8233 1.2884 10.9243 80 80 80
-5.7859 1.2869 10.9110 81 81 81
-5.7613 1.2882 10.9219 77 77 77
-5.7542 1.2934 10.9663 75 75 75
-5.8053 1.3119 11.1228 80 80 80
-5.8445 1.3278 11.2579 84 84 84
-5.8498 1.3361 11.3287 87 87 87
-5.7938 1.3305 11.2811 87 87 87
-5.7552 1.3289 11.2669 84 84 84
-5.7324 1.3309 11.2838 88 88 88
-5.7132 1.3337 11.3079 95 95 95
-5.6769 1.3326 11.2984 100 100 100
-5.6333 1.3297 11.2740 98 98 98
-5.5829 1.3252 11.2357 89 89 89
-5.5673 1.3289 11.2673 88 88 88
-5.5549 1.3335 11.3059 91 91 91
-5.5433 1.3383 11.3467 96 96 96
-5.5131 1.3386 11.3494 94 94 94
-5.4942 1.3417 11.3757 84 84 84
-5.4637 1.3420 11.3781 83 83 83
-5.4323 1.3420 11.3786 86 86 86
-5.4067 1.3435 11.3913 83 83 83
-5.3863 1.3464 11.4153 82 82 82
-5.3772 1.3520 11.4635 88 88 88
-5.3981 1.3654 11.5769 90 90 90
-5.4022 1.3746 11.6551 88 88 88
-5.4438 1.3936 11.8159 97 97 97
-5.4751 1.4101 11.9559 101 101 101
-5.4475 1.4116 11.9684 99 99 99
-5.4238 1.4141 11.9895 114 114 114
-5.3964 1.4157 12.0030 124 124 124
-5.3680 1.4170 12.0141 136 136 136
-5.3340 1.4168 12.0127 150 150 150
-5.3036 1.4176 12.0196 153 153 153
-5.2738 1.4186 12.0278 155 155 155
-5.2447 1.4198 12.0379 152 152 152
-5.2196 1.4221 12.0573 152 152 152
-5.2980 1.4528 12.3175 150 150 150
-5.0457 1.4492 12.2874 150 150 150
-5.0276 1.4539 12.3268 152 152 152
-5.0024 1.4565 12.3492 157 157 157
-4.9848 1.4614 12.3910 155 155 155
-5.0074 1.4783 12.5336 151 151 151
-4.9935 1.4845 12.5865 150 150 150
-4.9851 1.4925 12.6542 154 154 154
-4.9660 1.4973 12.6953 157 157 157
-4.9491 1.5029 12.7428 153 153 153
-4.9530 1.5150 12.8448 150 150 150
-4.9642 1.5294 12.9674 155 155 155
-4.9565 1.5382 13.0421 167 167 167
-4.9603 1.5508 13.1484 178 178 178
-4.9777 1.5678 13.2925 177 177 177
-5.0096 1.5896 13.4778 166 166 166
-5.0018 1.5991 13.5584 147 147 147
-4.9944 1.6089 13.6411 132 132 132
-4.9956 1.6216 13.7489 137 137 137
-4.9956 1.6341 13.8549 145 145 145
-4.9930 1.6459 13.9553 154 154 154
-4.9952 1.6596 14.0711 153 153 153
-5.0028 1.6752 14.2037 141 141 141
-5.0098 1.6910 14.3370 134 134 134
-5.0063 1.7033 14.4418 136 136 136
-4.9983 1.7143 14.5353 137 137 137
-4.9968 1.7278 14.6497 135 135 135
-4.9917 1.7403 14.7550 128 128 128
-4.9874 1.7532 14.8645 127 127 127
-4.9582 1.7575 14.9009 125 125 125
-4.9395 1.7656 14.9699 124 124 124
-4.9161 1.7722 15.0259 122 122 122
-4.8594 1.7668 14.9800 124 124 124
-4.8100 1.7640 14.9561 120 120 120
-4.7265 1.7485 14.8246 119 119 119
-3.8238 1.5498 13.1399 114 114 114
-3.7676 1.5417 13.0716 112 112 112
-3.6622 1.5281 12.9560 115 115 115
-3.5961 1.5154 12.8486 112 112 112
-3.5372 1.5056 12.7650 109 109 109
-3.4990 1.5044 12.7553 108 108 108
-3.4492 1.4982 12.7026 104 104 104
-3.4092 1.4962 12.6854 109 109 109
-2.9904 1.5536 13.1724 88 88 88
-2.1411 1.4500 12.2942 117 117 117
-2.0935 1.4408 12.2160 117 117 117
-2.0547 1.4374 12.1875 115 115 115
-2.0157 1.4338 12.1567 113 113 113
-1.8866 1.5501 13.1423 86 86 86
-1.8698 1.5666 13.2830 91 91 91
-1.8187 1.5545 13.1801 94 94 94
-1.7860 1.5580 13.2093 100 100 100
-1.7392 1.5490 13.1336 97 97 97
-1.6924 1.5397 13.0547 86 86 86
-1.6576 1.5411 13.0665 65 65 65
-1.6197 1.5396 13.0539 58 58 58
-1.5833 1.5396 13.0537 99 99 99
-1.5496 1.5422 13.0757 109 109 109
-1.5139 1.5429 13.0814 114 114 114
-1.4796 1.5450 13.0996 111 111 111
-1.4340 1.5353 13.0172 112 112 112
